# 3D point list with one line of data per point:
#   POINT3D_ID, X, Y, Z, R, G, B, ERROR, TRACK[] as (IMAGE_ID, POINT2D_IDX)
# Number of points: 426, mean track length: 2.6716883116883117
685 -0.16006781030362033 -3.2442779891810716 21.874377442244253 193 172 110 0.92013249914134543 4 911 3 1159 8 2456
686 0.70808575666629514 -3.1854806379314788 22.070418660024583 154 133 88 0.36098480666311339 4 1779 3 1160
687 4.0416358143710678 -2.7790167795846084 21.42965726303839 170 149 96 0.97790600835314534 4 1209 3 1162 8 896
688 0.040377427970976085 -3.1900341178524294 21.918385477669414 138 120 69 0.2437336390554655 4 1196 3 1163 8 1371
689 1.8238479962587497 -2.642484485885825 21.426610026095801 197 177 119 0.44799104308315058 4 1265 3 1170 8 1782
690 2.3984177561021101 -2.5718955726004773 21.209126811393013 100 82 32 1.3096173988356321 2 510 4 2488 3 1171
691 5.7592867948040407 -2.2716976859368359 21.982768737984571 156 145 100 0.96806311273619661 4 914 3 1174 8 613
692 5.80627225445597 -2.2560099611830275 22.01003450898471 81 74 32 0.32498496564034712 4 1188 3 1175 8 1165
693 3.5769448153959997 -2.4546339019308436 21.913277711310176 92 76 31 0.55739153130510499 3 1177 8 804
694 1.9100478654487365 -2.5031928178541873 21.241464125170701 182 168 109 0.15063099932474541 2 1008 3 1182 8 1728
695 4.6700570887040476 -2.2943048098271439 22.352292529028141 130 117 69 0.79731609475754828 4 3229 3 1184 8 2442
696 5.0689428146264888 -2.2606278698798206 22.468668857225641 126 110 62 2.023703426564023 4 2485 3 1185 8 1766
697 1.3141589898748396 -2.5073016154338101 21.748035292214347 180 160 110 0.61216173919570038 2 1410 3 1187 8 2362 4 3173
698 5.239631643588762 -2.1745118911894137 22.198384818827698 106 89 44 0.38920642603942107 4 1793 3 1189 8 2437
699 6.3639819193042353 -2.3487156999381082 21.532468007639594 167 157 108 1.2026817712878977 4 2993 3 1190 8 1312
700 1.5145063592378381 -2.8480660901342367 21.483043894443433 206 182 119 0.72961049446336856 2 1149 4 1258 3 1191 8 2452
701 2.4554273935566551 -2.7185070385626835 21.099570489089558 133 115 65 0.51313200671629355 4 1191 3 1192 8 1220
702 2.864224485207215 -2.6502944080096142 20.867462860184609 139 127 75 2.0646304279395076 4 1775 3 1194 8 3282
703 2.465721366859166 -2.6732178289068425 21.00051918211803 144 128 77 0.53584838111942057 4 1765 3 1198 8 2440
704 4.3766619673463323 -2.5499837643547951 21.795213638983448 112 103 60 0.27494767982537605 4 1179 3 1205 8 1141
705 2.5186563307289993 -2.6145877934338775 20.896282990589349 185 173 121 0.33821367770595745 4 1161 3 1207
706 4.0210680317666725 -2.5411943832305099 21.477351443153385 132 120 78 0.13827692291001681 4 915 3 1208
707 2.1272987020664842 -2.7286056387482214 21.68610613079731 137 110 63 1.0387173660444466 4 939 3 1209 8 1227
708 5.5574516515902976 -2.376088975233364 21.53887996624097 153 145 99 0.42933876855120223 4 1227 3 1211 8 1125
709 5.4852051089444069 -3.3440093425856072 20.458553919375845 187 167 117 0.6421323912837984 2 1013 3 1214 8 2750
710 5.4877348545914728 -3.3248676529403918 20.513107722928222 164 144 94 1.0902932850558278 2 983 4 2908 3 1218 8 1271
712 2.1083131471804593 -3.6726089003035676 20.935657054325141 138 116 58 0.59515925230363231 4 1306 3 1222 8 1954
713 3.7624380746937738 -3.4745124068145987 20.669965207237261 204 187 123 0.68411125985303745 4 1284 3 1223 8 884
714 4.7901629394461285 -3.3423191146634408 20.583412814349639 214 196 146 0.47544104406282911 4 1827 3 1225 8 1950
715 5.0694612535876944 -3.407037006538276 20.49456359189697 179 157 100 0.78910137400512015 4 1335 3 1226 8 1288
716 4.2660412338285463 -3.3516515906895106 20.631494966074225 187 170 115 0.27851190086248451 4 1300 3 1227
717 3.048730685197226 -3.4931170747717597 20.900982505347002 169 144 90 0.20422745686258037 2 2255 3 1228 8 1265
718 3.8506748315727455 -3.3361847850746802 20.608654482148367 207 186 123 1.5563702338972323 4 1304 3 1231 8 3562
719 4.501759042246591 -3.250486187889464 20.576989555534499 136 114 56 0.2577389944820549 4 2785 3 1233 8 1253
720 4.9146960154841057 -3.224023736482756 20.682497377409469 152 137 80 0.83449581074360069 4 1938 3 1234 8 1936
721 5.5653910122086527 -3.1737289854239976 20.896828334464558 165 147 97 0.098378771957283395 4 1299 3 1235
722 2.5041826957474891 -3.4531996805494116 20.829073854389964 129 106 62 1.1370202986469264 4 2857 3 1236
723 3.8988387419795667 -3.3110223546692672 20.776505883208884 200 184 122 0.16944644811448556 4 854 3 1237
724 3.8545271864487285 -3.6892661382265235 20.474538043046202 158 137 64 0.70821333675144293 4 1812 3 1238 8 1801
725 3.7960821908713593 -3.8090143909687271 20.362225884724598 195 171 106 1.9485536815944056 4 1324 3 1240 8 3400
726 5.669442318669355 -3.5395631303404955 19.954233851113045 157 150 97 0.19487533851815428 4 2873 3 1241 8 1274
727 5.363152303211967 -3.5761709414750755 20.251601847159371 143 127 67 0.82162489566265418 4 1317 3 1244 8 1275
728 3.6996341012560818 -3.76046947273153 20.4958069732441 177 156 89 1.0095110627827808 4 1819 3 1246 8 1287
729 5.5636705248148912 -3.5304845429955685 20.352037430141269 175 156 98 1.3600412620233311 4 1319 3 1249 8 3345
730 2.0592066881518676 -3.5315259466952895 21.168284220808729 139 113 54 0.14025568583777009 3 1250 8 1929
731 5.5838323665644456 -3.4273811733153448 20.255404707083983 193 172 117 0.88296683470614223 2 996 4 1327 3 1253 8 1449
732 5.4655207343032695 -3.4114074066441069 20.292016157304438 189 167 117 1.0416324895563998 2 1370 3 1254 8 1109 4 2918
733 4.2658364037347098 -3.5302168674767351 20.509087593867086 74 58 8 0.63040388486337784 4 1337 3 1256 8 1292
734 3.6316234788820556 -3.588957297552104 20.623918318575285 156 141 82 0.40717412073275328 4 1289 3 1258 8 1390
735 2.1577034403718391 -3.7430191784836899 20.912069331526261 140 121 65 1.6466212172137205 2 1152 4 862 3 1261 8 891
736 0.49033304927315097 -3.333080935735758 21.537293868432929 164 136 89 0.62162969927824141 2 1144 4 1220 3 1262 8 816
737 2.1659312434099238 -3.2172199663557448 21.081937570870199 189 167 117 0.12116796745035206 4 1357 3 1264
738 2.7122812168998065 -3.139715975871832 20.887765332572368 152 137 78 0.30632519213476034 4 960 3 1265 8 580
739 2.4819018348734554 -3.1631440583222221 21.019062392794734 158 137 80 0.015227194716842068 4 1683 3 1268
740 2.6280817584619109 -3.1117799648041706 20.805331885761596 115 101 41 0.17446366699116328 2 1623 4 2956 3 1270 8 1705
741 2.0558770124412553 -3.1719496505406077 21.048217451213084 135 117 71 0.29873769187050142 4 1361 3 1271 8 1328
742 1.9609539504177191 -3.0664142627325526 21.021441063029954 195 172 123 0.76993617437373363 4 1212 3 1279 8 1171
743 3.8047106474447854 -2.8978734355751903 20.980545114634541 184 168 119 0.064086515947946315 2 1520 3 1280
744 4.7379067767291545 -2.789185244392697 20.936286047746883 95 83 42 0.37810192268277132 4 1692 3 1284 8 1355
745 1.7621127718097331 -3.1066367653647773 21.349956997595918 195 174 121 1.8528105268443185 4 1649 3 1285 8 2983
746 2.4834390357985328 -3.3612123454278278 21.063763829700342 142 124 78 0.23444053441177981 3 1287 8 3492
747 2.0728502714758577 -3.4982680027071176 21.157594577126389 211 189 131 0.74600149965815621 2 1653 4 1896 3 1290
748 4.6988555461679775 -3.1363211681559453 20.638957821229109 177 156 99 1.8116041949086739 4 670 3 1293 8 1255
750 4.6564608662434592 -3.1328233600844113 20.662032594823405 104 83 28 0.28687490552252415 4 1326 3 1295 8 1240
751 -3.0081773323687009 -3.9396107619098393 21.700927595266002 118 114 77 0.6652997278766043 4 3037 3 1296
752 -2.9493480542053261 -3.9279337418435385 21.592419678791444 190 188 150 2.4662705722481921 4 2947 3 1297 8 1763
753 4.9196768701115676 -3.1192500660249487 20.811227488997801 131 106 49 0.44322512586671592 4 2841 3 1298
754 5.2890882453534802 -3.0637413941255098 20.988976223334497 168 148 99 0.19299386350026027 4 1368 3 1302 8 1254
755 2.5504819043796521 -3.3065595431553829 20.92782943694483 137 125 67 0.33042644968693119 2 1619 4 1924 3 1303 8 1915
756 3.6958394587997652 -3.2072295910086779 21.013305222268386 161 151 90 0.58925824869189269 4 973 3 1305
757 4.9761638121159963 -3.0682851743453399 20.947056492361423 106 90 30 0.74836786921191523 4 846 3 1306 8 892
758 3.3702202836748105 -3.1116284282576898 20.897212069798826 127 111 49 0.22545774573646823 4 1393 3 1310 8 3070
759 0.93387020955951339 -2.4209082910916906 21.782946074386306 95 85 49 0.44146817157403584 4 790 3 1368 8 1024
760 2.077627743376679 -2.3607653116569738 21.342885256045204 163 141 92 0.40289900842772641 4 1049 3 1372 8 831
761 1.4722468522998047 -2.5680523604084846 21.674377580389205 148 127 70 0.436934297318603 4 1170 3 1378
762 4.2116252442851883 -3.6011794498959202 20.440206255058385 84 62 6 0.63478535193677277 2 1077 4 839 3 1379 8 1111
763 4.6322322986690212 -3.580453066919981 20.635089979184645 168 151 96 1.8770936694149596 4 638 3 1380 8 416
764 4.6038890497615297 -2.4926943125314054 21.886434194522561 78 70 28 0.093017901784303803 4 1184 3 1381 8 1142
765 3.7414795124624756 -2.6234441664546404 21.220295882919814 145 137 90 1.4705462705887864 4 1663 3 1382 8 821 8 3216
766 2.7922385261298723 -2.8785911493458314 20.853656187917466 173 156 100 0.8787961970961996 4 942 3 1383 8 617
767 2.1212598876175006 -3.1143348139190148 21.079978603663758 157 138 94 0.34512712913585225 2 746 4 987 3 1384 8 1153
768 3.5713547537847838 -3.0160601280553552 20.822616668460199 137 120 65 0.3080402463748475 4 1964 3 1386
769 0.49675994089285674 0.59405697958934678 27.50424440090514 150 156 126 0.69442219239158232 2 2208 4 2141 3 1397 8 2910
770 -0.36990634189016647 -2.3108296729674054 22.987627454061428 55 41 0 0.36113645518461551 2 784 4 1020 3 1401 8 1019
771 2.7950582215008866 -1.9634140216935636 22.348446083953107 54 44 9 0.29767830307883408 4 2200 3 1413
772 2.5877728907770461 -1.9287059262902302 21.88932907318415 52 36 0 0.91988472893085182 4 1538 3 1414
773 -0.26046172717754301 -2.245194210365808 23.112364722286678 119 102 51 1.0426477384219588 4 1109 3 1415 8 2183
774 -0.3411582029581377 -2.2342736714008913 23.159104797446169 148 136 88 0.66497163978029705 4 2166 3 1416 8 1505
775 2.1343768777732879 -1.9114761763691175 21.824827559975478 160 148 98 0.53150224306439586 4 1544 3 1419 8 1037
776 2.1498601376409634 -1.8640139000311273 21.758405260773515 124 116 70 1.3045307828983947 2 2900 4 886 3 1422 8 1006
777 2.8596120966519845 -1.9699506296381988 22.236546622874911 55 43 6 0.69861419680618508 4 1251 3 1425 8 1028
778 2.3646546590669741 -1.8048491664369353 21.792403459192638 95 83 35 0.3964608026130218 2 1324 4 1552 3 1426 8 1491
779 3.1310831132743848 -1.7847284375180645 22.869442722067568 121 100 55 0.83602597616567509 4 1548 3 1428 8 1498
780 4.5670906105523388 -1.5988476140708408 23.124079723090944 174 157 101 0.19982837880812951 4 881 3 1430 8 1021
781 4.2725905397394213 -1.5896953633880111 23.147619310302961 181 161 103 0.019275695975321687 4 1549 3 1432
782 2.5072047141174676 -2.1970705790824678 21.473634042078697 154 145 93 0.4998600411331508 4 1230 3 1441 8 1203
783 3.1728407452676444 -2.1901742155233177 22.079961370023824 114 93 46 0.62341454632153359 4 1721 3 1442 8 1196
785 5.6275237235911009 -1.8999040818681439 22.532224453898738 112 108 70 0.83556767603392446 4 1731 3 1448 8 2524
786 3.1524847680078047 -2.0985307441832455 22.159898651688614 108 91 39 0.60652132678905901 4 1236 3 1450 8 1204
787 -0.65837345076117137 -2.4853445359365085 22.968876690943819 131 126 83 0.28980071894948628 4 2190 3 1451 8 1495
788 3.7272499845013831 -2.0224781849984677 22.078050426920591 129 111 61 1.269189690358961 3 1452 8 2504 4 1754
789 -0.11522133858668772 -2.4095732934218193 23.059298505445227 149 128 77 1.0033122337260136 4 1167 3 1454 8 1008
790 0.68455800153563395 -2.3072626068970639 22.552891031447469 169 162 118 0.91239564788426675 2 518 4 2197 3 1455 8 1539
791 3.2661910293991747 -2.029163107026648 22.296704729213737 126 108 60 0.46042048515622419 4 869 3 1457 8 808
792 -0.14869080101723456 -2.2989955101268489 23.05692524423727 173 157 106 0.12406159587024379 2 1129 3 1460
793 3.3237227359805348 -1.3220178282355135 23.071373662914638 165 154 107 0.62845294817384534 4 2293 3 1466 8 2290
794 3.5644412103284777 -1.2596399207824178 23.247161328484385 165 157 110 0.16642958879606917 4 1529 3 1471
795 1.9719875910079148 -1.3479322399564593 23.642455172727889 184 174 123 1.6618387724957426 4 3717 3 1478 8 1582
796 2.6716483243486144 -1.2375095601126069 23.768935220929443 166 154 104 0.6769319684713434 4 1099 3 1481 8 1580
797 3.9329095491521229 -1.5143069081522766 23.061318802250206 171 159 114 0.63911246735903049 4 1102 3 1483 8 2176
798 4.1070434509487885 -1.4702505629708644 23.300516067192479 159 139 79 1.1710054791644018 4 1558 3 1484 8 2407
799 3.9129304602997776 -1.4866864885609516 23.32364990062749 137 124 80 1.2950514406556104 4 1113 3 1485 8 3765
800 4.0706358719680251 -1.4517437813612868 23.247801537794967 111 94 38 0.66283914176819925 4 1562 3 1487 8 1003
801 0.68442089068717915 -1.7314978014144993 23.841612060300218 136 134 93 0.83178160224304476 4 1028 3 1488 8 1040
802 4.3383157478301797 -1.2548360231789217 22.900209176865321 95 91 55 0.061070659007931669 4 1518 3 1491
803 1.9471287056119915 -1.5195515364565255 23.550399397559694 124 112 64 0.99561211461916954 4 1533 3 1495 8 1073
804 0.81907911517364829 -1.8363162596122766 23.622983469329299 124 117 67 0.025796958862813423 4 2175 3 1499 8 2296
805 3.4769776746361702 -2.1417378763271766 22.494236605567298 115 100 50 1.0684200603854421 4 1283 3 1504 8 823
806 5.7787471696763779 -3.4152169073439378 20.352229926943824 182 174 125 1.9816154580845167 4 1622 3 1507 8 3354
807 0.83318147321424385 -2.8946146883681578 21.909037172542234 175 152 105 1.0227393444324309 4 1786 3 1511 8 1781
808 5.3618761689320715 -3.2848909684037855 20.609810433003819 152 130 80 0.64309239550935782 4 1836 3 1512 8 1832
809 2.8192656629250794 -2.8521083882787464 20.868974453260503 118 101 49 1.3999880577788371 4 1615 3 1518 8 1659
810 3.5610867092857794 -2.8321005039291709 21.07546943541238 107 89 38 0.22164378519461536 4 1702 3 1530 8 1690
811 3.6781070905539437 -2.7997664874427728 21.038605389337832 159 143 91 0.032892722335326932 4 1701 3 1533
812 3.525512257433761 -2.8183193127854587 21.135103258736056 166 146 93 0.49091319635880803 4 1210 3 1535 8 1139
813 4.8195728476142579 -2.7415189094958912 21.581643132162597 116 97 54 0.57158482167632663 4 3325 3 1538 8 3450
814 5.0097126488416865 -2.727603499672032 21.339005588666289 111 97 50 0.46913780072773176 4 1680 3 1539
815 -2.8950353183708328 -3.4733400256109301 22.220602326417854 189 181 147 0.97064985027344397 3 1540 8 1199
816 4.0620308024314813 -2.6867971940068576 21.6082434760851 83 70 28 0.91218758824080004 4 1674 3 1544 8 1157
817 3.7133082620441868 -2.6973265190747981 21.077669474997602 120 107 63 0.15742998888035351 4 1639 3 1546 8 2968
818 1.8948757176602453 -2.8671593667234179 21.079076971127819 107 81 24 0.24601585071931784 4 1777 3 1548 8 1767
819 3.5319284653121588 -2.7698704875598374 21.224927841640575 172 155 99 1.1168599265628871 4 1219 3 1549
820 1.9611014038688428 -2.9372288389391219 21.0720259691089 152 126 74 0.62529975345390332 4 1187 3 1552
821 -0.14788310827905107 -3.1691157287996226 21.921978580485757 125 113 68 1.3238932464134736 4 1261 3 1553
822 -2.9046583112536708 -3.4443390956022339 22.242091497821722 132 122 88 1.7778267644822885 4 2438 3 1554
823 3.6606676465635877 -2.7540609566293486 21.181795091782124 150 138 85 0.78596011726578008 4 2962 3 1555 8 2988
824 1.9103681069926324 -2.9218013551210964 21.054019480652236 181 160 105 0.30658745258858378 4 1661 3 1556 8 1639
825 -0.36161319368546169 -3.2266134775072937 21.895794412232835 177 163 115 1.1776152390107593 2 971 4 3079 3 1557 8 1235
826 1.8839113453519907 -3.176981840017282 21.080511554157219 125 108 54 0.3710589425655999 4 1709 3 1561 8 2991
827 4.8687647347947456 -2.8538765373404158 20.933783991558993 114 100 57 0.13107674866820307 4 3015 3 1564
828 2.7630883054136248 -3.0455936551103262 20.741880332502863 157 141 85 0.98522483743196132 4 954 3 1566 8 1698
829 -2.9640954880836854 -3.6718506223365712 22.19910834292547 185 181 146 1.5375846314252855 4 943 3 1570 8 1774
830 2.3536868602346037 -3.1597050778542779 21.175881116584403 187 163 116 0.72173927102807323 4 1359 3 1573 8 1696
831 4.8393142658106285 -2.9245060387663693 20.969607481769387 171 155 104 1.089983100989917 4 2836 3 1574 8 3469
832 4.8594793615413794 -2.9065106918944226 20.919954651355599 111 94 45 0.67180556220029608 4 1929 3 1575 8 1893
833 3.5997120825979985 -2.8462389883323276 21.044461289037869 135 120 65 0.69447666475480896 4 1705 3 1579 8 2922
834 0.62020838053999683 -3.2228576200603398 21.941849068240057 101 76 29 0.25226114703240804 2 1554 4 3133 3 1580
835 3.8105684196909624 -2.8380114389579778 21.106703406452805 157 147 94 2.1464332433458964 4 3341 3 1581 8 1859 8 2963
836 3.6885734085016586 -2.8341085020508872 21.04464249716974 184 168 116 0.49043289552714525 4 1476 3 1587 8 3499
837 2.8759405602075465 -2.970323960403686 20.864782526301155 116 93 39 0.68834409014704634 4 1698 3 1588
838 3.8487561947062248 -2.9299980993425176 21.095123033261629 144 125 74 0.39750624440519394 4 1684 3 1591 8 1309
839 2.4621850020548983 -3.0634698397106468 21.13015130259971 113 93 34 0.63092043009244192 4 2990 3 1592 8 1623
840 7.2550520514845553 -2.6305304739161159 21.305444017120667 124 125 94 1.6641756673510868 4 677 3 1594 8 242
841 4.6843816799753384 -2.2720507115279114 22.198868109650327 88 63 7 1.3478374707846879 4 2610 3 1597
842 5.3441441713849995 -2.2441106121719567 21.691662291928882 168 155 103 0.2833970186454835 4 3561 3 1607 8 1646
983 5.6210331452331275 -3.1918803976305949 20.819110221130568 146 125 78 1.5857334278340576 4 1296 3 2140 8 1298
984 -0.37406579791518613 -2.293581943889369 23.108238347019419 133 120 75 0.25143929622814959 4 2215 3 2158 8 2178
985 2.0480297638242413 -1.9514712926734996 21.781576018546506 139 127 80 0.038166115271031753 3 2161 8 2240
986 4.5805214035594588 -2.5543542828599062 21.707542125492107 138 131 86 0.79394938872525112 4 3041 3 2163 8 1164
987 0.85905266427177274 -2.9479218095756483 22.004062160629736 134 110 60 0.64580699441133937 4 3230 3 2170
988 2.9946258788230726 -2.6096341437167272 20.857266684639892 143 132 86 0.25607729731130191 4 3101 3 2172 8 3287
989 2.9625181222318804 -2.6082442741556857 20.839383646774788 169 158 106 1.9992050862737445 4 3100 3 2174 8 1770
990 3.0424025140764774 -2.585492909174032 20.800746243984076 137 130 84 0.62163984359150082 4 2469 3 2175 8 1218
991 4.4678808057784023 -2.5547564184915261 21.823437108774588 116 105 60 0.60247654212437041 4 3033 3 2177 8 3246
992 1.8023396925781898 -2.855547655037987 21.159954004341962 155 126 76 0.44276544850016913 4 2465 3 2189 8 2438
993 2.7544175179056509 -2.7181820960650342 21.145089275775405 166 157 101 2.6708899076853476 4 3095 3 2201 8 2479
994 0.11336069470783566 -2.7465756362230827 22.119535306209233 183 179 132 1.9766738022866814 4 2612 3 2211
996 2.0842427130197181 -2.4766161481374431 21.334717645737268 182 160 110 1.1299720064818641 4 2617 3 2213 8 3158
997 6.5378021119685865 -2.3113868762369223 21.683553832584124 160 159 115 0.88309455422848016 4 3125 3 2222 8 1667
999 2.0270275146916998 -3.1735889876068142 21.02079057061686 190 172 124 0.48534197466508955 4 2942 3 2261 8 2932
1000 1.1734569461630233 -1.274612834038265 24.217417227423066 179 168 118 1.6504493594159835 4 3874 8 3865 3 3335
1001 1.2124520569816948 -1.3064585084588731 24.302992863740748 129 117 69 0.47841633056726901 4 2274 3 2266 8 2263
1002 3.1762423031136988 -1.0665938491697908 23.810507906551429 137 136 97 0.82280319199878826 4 1593 3 2268 8 2360
1003 2.4802193749618588 -1.0460013356592879 23.761543988285958 118 116 67 1.2452070818204695 4 1601 3 2273 8 2265
1004 1.046195329880157 -1.1713792380339814 24.382103082486601 145 142 87 0.46909503361226973 4 3820 3 2275 8 3857
1005 1.1632607513048838 -1.1303707006577695 24.417150906096435 128 122 76 0.43415800554732198 4 2376 3 2277 8 2255
1006 1.2453752225158508 -1.3660481307932346 24.251529441865927 88 77 31 0.40165027617136689 3 2308 8 2314
1007 4.4565907282435742 -1.4023251107892321 23.295849000629506 153 146 97 0.3927003163783942 4 2164 3 2317
1008 4.1320698945588195 -1.4698713914345298 23.137400013620017 120 98 38 0.29003796954853711 4 2346 3 2322 8 2385
1009 2.7451042297340829 -1.571744953742046 23.639361627762824 88 70 24 1.7528654876894223 4 2181 3 2325 8 2311
1010 3.6671897774642388 -1.5281013502602028 22.886544068497457 157 144 99 0.56902721050940164 2 2078 3 2327
1011 3.2475116895693992 -1.4643546240005501 22.977294254570676 161 145 94 0.28798087756378682 4 1516 3 2332 8 2644
1012 3.0232719030856186 -1.7439567462905197 23.173760516566951 124 106 60 3.0441495962535745 4 2218 3 2343
1013 0.72060304305359058 -1.6648459387552046 23.976482140494198 170 173 129 0.16032769950504985 4 2339 3 2347 8 2325
1014 7.3279705366494898 -1.1979114961879636 23.051629136412174 120 126 92 0.92457526336518858 4 876 3 2353 8 362
1015 3.5333870012352837 -1.2578464592457872 23.70351843930283 105 98 54 1.6464447440130854 4 2289 3 2356 8 1586
1016 3.5051145896194678 -1.2491205804472614 22.994409662134061 158 151 105 0.12862586046516239 4 2329 3 2364
1017 2.6843024348129116 -1.268631988723314 23.770757585920094 135 121 72 0.68548786997575561 4 2281 3 2374 8 3004
1019 2.1081628336706228 -1.4778721775871655 23.100164857545867 173 157 108 1.5590739004644314 4 2291 3 2382 8 2291
1020 4.2611421438296375 -1.2652047690643615 23.260733310078066 98 97 47 0.59965394069358557 4 2167 3 2388 8 1061
1021 2.2827543642510664 -1.4460690545764596 23.475290965702673 129 109 58 0.21603334920289044 4 2334 3 2393 8 3927
1022 5.3364235538403841 -3.5828341268436743 20.284982533103165 209 193 135 0.83334444964908683 4 1837 3 2397 8 1870
1023 4.6484026657996083 -3.6795560075585265 20.61215373448988 136 126 74 1.5248981318688937 4 3477 3 2400 8 2730
1024 3.6392456468093184 -3.7412784401893115 20.5980789881568 145 127 65 0.57243159995069937 4 836 3 2405 8 1114
1025 3.6552271734380595 -3.709359073709352 20.626270694311646 154 131 61 1.6053419414255188 4 2936 3 2411 8 1290
1026 5.0244834383879988 -3.4117203284556412 20.602916643051682 142 116 62 0.5940214744847504 4 2902 3 2434 8 2809
1027 -3.0473613847627408 -4.2146113359384758 21.419832893747358 201 195 166 0.90421453731653045 4 3034 3 2435 8 1656
1028 -3.0396887668481614 -4.1962611681093129 21.312751375702007 114 107 79 0.76793265875764938 4 1691 3 2436 8 2973
1029 4.534439961616112 -3.4059247680313236 20.494957028038428 188 168 109 0.67001486890886786 4 1833 3 2441
1030 1.8224282127059384 -3.7411564237035861 21.085564324071942 88 70 22 0.65748303548785336 4 1307 3 2442 8 1904
1031 4.9801699097286924 -3.4024084161930497 20.854600509466742 131 104 49 2.0913585784667346 4 3404 3 2443 8 1828
1032 4.5965373511725627 -3.5178942311963675 20.606613161292547 134 118 58 0.97497548724354421 4 1809 3 2449 8 1799
1033 4.232772509904513 -3.5293085641422359 20.537150164670493 154 140 88 1.2860827695084269 4 2907 3 2460 8 1604
1034 5.3125522270705581 -3.4155462727201247 20.450295888583096 166 141 85 0.779922268554333 2 2594 4 2651 3 2461 8 1283
1035 4.4054664413707076 -3.4992059930732924 20.329837816258973 138 122 71 1.8233269824948906 4 3072 3 2474 8 1085
1036 1.3889688923980827 -2.8709573276994234 21.791614442437439 176 150 93 3.1291730622967542 2 1091 3 2495
1037 4.1590189247926688 -1.4660371705702788 23.172389284949425 175 154 91 0.1785549907786029 4 3519 3 2517 8 2399
1039 3.9937903234545855 -2.96590562415436 21.401215443652926 130 105 51 0.66085781716239389 4 1687 3 2526 8 1316
1040 4.3147230638372003 -3.4086889456813658 20.622965341643681 180 162 103 2.0669551387633662 2 1454 3 2534
1041 3.4633464265634744 -1.1960935249677573 23.421528391437118 59 49 14 0.29475384976090913 2 1211 4 2285 3 2538 8 2293
1042 2.5742176200881084 -3.0818122091851428 20.933775583978296 158 142 83 0.31698538667096737 4 2948 3 2540
1043 4.5816476229203928 -2.8246838433126 20.81633340734766 162 150 100 0.17623223745380856 4 3348 3 2547 8 3487
1044 5.2341675026272592 -2.794847319755557 21.291469917006971 208 190 140 0.67732708438811429 4 3053 3 2552 8 3083
1045 3.6910820456027142 -2.8815492988387987 21.051322140293536 174 158 107 0.31329598443708506 4 3330 3 2556
1046 3.4008118103145857 -3.090531304323429 20.844882343483409 199 189 128 0.74938701703985133 4 3059 3 2560 8 3060
1047 4.9048122410391821 -2.9271515116470339 20.934391069412243 125 111 63 0.50847116023142747 4 2831 3 2564 8 3473
1048 3.1727876097245837 -3.0603064182358386 20.757764615559882 156 138 90 0.9670570638289463 3 2565 8 2946
1049 5.8394507627706442 -2.6980544569946123 21.486146249578901 194 181 121 0.74182210814526139 2 2935 3 2567
1081 2.6495766783876054 -3.2644875897579282 20.864340608757942 145 135 72 0.4638164056172891 2 2251 4 3025 3 2655 8 3065
1082 3.3849365159161482 -3.1579182494822855 20.621365585178371 209 202 139 1.2270817079454339 4 2614 3 2656 8 3095
1083 0.62514933119814886 -3.442949490971015 20.930242356822006 131 113 67 0.95827405339447358 4 3358 3 2659
1084 0.30268281549653514 -3.5682634829132569 21.012626640044335 142 124 74 0.61860519013561177 4 1352 3 2663
1085 4.825182705290251 -3.158090020940572 20.749326354139086 184 162 105 2.1703810527123641 4 703 3 2669 8 554 8 1970
1086 0.77894740537074325 -3.5173119887949964 21.036566178401227 160 148 108 1.2951545635706536 4 1695 3 2676 8 2920
1087 5.3585259950053663 -3.0411225793711334 21.046120799694886 197 183 134 1.6148758280621842 2 2944 3 2677
1088 5.655995238342749 -3.0146236443398129 20.693536092132408 147 138 94 2.0561579755434796 4 1967 3 2679 8 3298
1089 4.5051213090477278 -2.9806573338447024 20.77057919037761 135 119 60 0.47333591335625497 4 2830 3 2681 8 1895
1090 2.1283959427930395 -3.4378575088174133 21.253615357823964 201 177 117 1.0473782342866336 4 1925 3 2682 8 3064
1091 5.6178684700897454 -2.1891219554250325 22.106403828515209 124 108 56 1.5555602940694404 4 3082 3 2716 8 3274
1092 5.1799275659362074 -2.2934712227861853 21.76948392695661 154 138 87 1.005566934872004 4 2659 3 2724 8 1150
1093 1.8465657956146586 -2.5848112145047084 21.503491330074674 211 190 135 1.1217375016023587 4 1737 3 2727 8 857
554 3.1243039426009327 -2.3372449512318587 21.686824979519827 121 108 63 0.10621453211559236 4 657 3 844 8 763
1095 4.1415002327435051 -1.965131970140221 22.474867104651725 150 140 93 0.6092667636922644 4 1753 3 2742 8 3178
555 3.1792697250389348 -2.3555390193705952 21.755714735021069 69 56 12 0.69452926292603878 4 919 3 846 8 851
1096 -2.834063729718022 -2.7058504367930256 23.660922318660344 182 175 142 0.77172952616364221 4 1628 3 2745 8 2305
1080 0.62441472462666003 -3.4732720022257855 21.044183002280555 180 162 116 0.3167195007656739 4 2955 3 2654
982 2.8736894512801006 -1.8111977397798478 22.712440128362349 90 71 18 0.40083767243555674 4 2503 3 2136 8 3838
568 -0.011892562519084273 -2.4183849915546047 23.1441718167513 148 139 96 0.77612815077732089 4 878 3 876 8 1490
1109 -2.9262279633874102 -3.2814799578257667 22.720120483774561 131 125 93 0.90980031756619317 4 3172 3 2809 8 3796
852 2.3159576253209213 -2.7200996363216756 21.524830794788372 120 98 49 2.7739260588887831 2 2390 3 1636
1050 -2.9946488174307868 -3.7684483551609649 22.101788379256973 195 189 155 0.036621921866979254 4 2466 8 2527
981 4.3154981769292746 -1.7389981659248903 23.072102966833867 182 167 108 0.73435719373057973 2 1989 3 2131 8 1518
567 2.9011690121898583 -2.052802859019172 22.013606183626386 140 132 96 0.64403965377341488 4 1244 3 875 8 1022
1108 5.3232240725596958 -2.6183159881240985 21.26901949492817 212 202 149 0.85689811728291909 4 3886 3 2805 8 1304
851 2.2418093430368309 -2.6767360045653081 21.535679162201447 152 126 75 0.4563706795268771 4 1796 3 1633 8 1611
980 0.88117571673638628 -2.287132433796307 22.203758381724779 109 100 59 1.8251786620216675 4 3770 3 2116 8 2204 8 2424
566 3.6075241275547403 -1.9975462493717016 22.261774711543811 81 66 11 0.33864914757492331 4 877 3 873 8 839
1107 5.2999225276148083 -2.4031269313294108 21.530839123837016 197 180 126 0.12605356764671374 2 1968 3 2800 8 3986
850 6.512180266478552 -2.2793885908242917 21.708644577646648 98 104 60 0.10808169427772479 4 2986 3 1632
979 1.3916892432396415 -2.4699953818615836 21.889961721600567 173 153 103 0.10725735378649294 4 3168 3 2110
565 1.761491413245085 -2.1198720774701929 22.326709351902629 83 71 29 1.7981481796787087 4 2504 3 869 8 2419 8 2421
1106 0.1945232740483554 -2.8960022987281024 22.125331255025294 201 185 136 0.79713966948154535 4 2442 3 2798 8 2498
849 2.3063133106564977 -2.7075398252127947 21.335527258463383 158 137 89 0.57302471087870932 4 1762 3 1630
978 -4.142711264969944 -3.1798449421593191 24.633806040465558 71 68 33 0.68041246776886721 3 2109 8 2634
564 1.7815619872495609 -2.2312713293842732 21.355063834795864 153 143 94 0.41864365638268469 4 867 3 868 8 749
1105 2.4436619315400336 -2.9560214064505206 21.686096685463017 177 157 104 0.771939867879888 4 3023 8 2985
848 0.940123598267395 -2.493068908197297 21.563426210324959 174 161 119 0.37545580788135391 4 1759 3 1626
1104 -2.9169205558529039 -3.4258326821849541 22.369186140793968 131 125 91 0.55486613979106203 4 2444 3 2784 8 840
847 1.0381615342105444 -2.480516475145301 21.615780806046111 156 142 96 2.0591956748741027 4 1624 3 1625 8 2371
562 2.9678859224358636 -1.9400365477588779 21.868117780109085 83 66 21 0.54303274194841888 3 865 8 1025
1103 3.8712771782862876 -2.6593387666141224 20.991078440251862 161 154 112 2.8638488580657468 4 3047 3 2780 8 2966
846 1.9801670107991562 -2.3459423718561503 21.244201380355811 179 162 110 0.57016430955437303 4 1277 3 1624
561 3.7893818987214147 -1.8484672053737883 22.869835701944556 131 116 73 3.0402990478140453 4 2205 3 863
1102 3.5972524624411739 -2.6354253080476324 21.346562549784274 98 79 36 0.47542446555807044 4 2946 3 2777 8 2464
845 5.1300068349355179 -2.2982653487133682 21.659301723029863 77 58 15 0.28934687804008807 4 1193 3 1622
560 4.0021549295581114 -1.7158974898770578 22.784827255761712 181 173 127 0.61500306793922843 4 866 3 862 8 1528
1101 4.8129614161251029 -2.5694616285341008 21.551374033028534 118 101 49 1.2084536471187877 4 3112 3 2768 8 3111
844 3.183020946733603 -2.266962096309256 22.204668434247299 53 35 0 1.6970259577354971 4 802 3 1620 8 982
559 3.6873864158504293 -1.5841343397958711 22.826647283449571 196 183 138 0.28272385615344969 4 1105 3 858 8 1005
1100 3.5563762512843775 -2.6632315351913656 21.468100723040113 45 25 0 0.77082480147866972 4 1659 3 2766 8 820
843 5.1432842688121108 -2.3079296424979669 21.981585287337303 111 94 48 0.53014459434647321 4 2473 3 1610
558 2.1953809037069929 -2.5364127117256929 21.821247704240676 159 132 79 0.76424043772785577 4 1269 3 850 8 854
1099 1.8276173457004243 -2.8753277544800233 21.142004430610143 127 95 46 1.4034022983524779 4 1778 3 2763 8 3251
557 2.1844577336216227 -2.492845386138927 21.807483958150065 109 84 28 0.24664215107114795 4 1272 3 849 8 826
1098 1.4651903004975815 -2.2487617168433367 21.454664351607793 166 154 106 0.62030917362461602 4 2532 3 2751
556 7.3392381473893575 -1.9983231073229155 22.117612257950803 118 124 88 0.39443700707824647 4 333 3 847
1097 1.5071067486507939 -2.2401344666617513 21.600277373903925 150 140 91 0.5451915844020695 2 1470 3 2748 8 3809
1079 3.7412727353459436 -3.2231860118321909 21.190487585008281 200 189 127 1.0340466133742328 4 1902 3 2653
1078 3.983064496309515 -3.3665805338000712 20.807801741959917 184 167 114 0.36696845888868906 4 2778 3 2649 8 3000
1077 2.350260460056957 -3.5531540683040266 20.929392399242982 96 74 24 0.79447976804095377 4 1956 3 2646 8 1095
1076 -0.039888832051447574 -3.7449958500275136 20.815895341306987 184 168 117 0.15303592457902901 4 3265 3 2645
1075 4.158326177564283 -3.3643596201815145 20.743742503957264 173 155 104 0.55894057727405044 4 1936 3 2644 8 2432
1074 4.7699196391420582 -3.353931804706848 20.672950836439476 106 85 33 0.59080194643637918 4 3481 3 2637
1073 3.8225099940073854 -3.4787194129957206 20.884333239066827 125 105 44 0.54192145053638408 4 855 3 2636
1072 3.3761137478582857 -3.5189417382162493 20.784454015299968 155 142 89 1.2697084443463604 4 2788 3 2634 8 2800
1071 5.6276280370905791 -3.2612868638909589 20.508610922827231 152 128 80 0.86150726087003726 4 2909 3 2633 8 2806
1070 5.6147877807178155 -3.2246724503607824 20.656051121963522 179 158 105 0.21783905176784629 4 1288 3 2632
1069 2.5823642053665061 -3.4000996785038429 20.91101980336331 127 109 63 0.68796949655305939 4 2821 3 2630
1068 2.1462742468838938 -3.4667750584071881 21.099619269732806 167 143 83 1.7203803530879542 4 2827 3 2629 8 1920
1067 3.6956317656946638 -3.3276114247163364 20.907457128952661 164 148 89 0.17555666675177273 4 2846 3 2626 8 3050
1066 3.8176769025190791 -3.3566255110071244 20.729137074031627 173 152 92 0.53478262255203812 4 1969 3 2622 8 1967
1065 1.8201768053633303 -3.539284828472125 21.048597384122505 176 166 115 0.20863520480552752 2 2312 3 2620
1064 4.9815687128486132 -3.2050937860632089 20.568318013456039 121 98 38 1.2548449952419898 4 1945 3 2615
1063 4.2107184084702691 -3.2840299439227136 20.63321121785345 212 197 137 0.65065169819001334 2 777 3 2613
1062 5.6256805361199085 -2.6509555062700469 21.606468316770901 170 151 92 1.3991566796556192 4 1679 3 2610 8 3423
1061 -0.17697938311916947 -2.2936274925499722 23.301797598193247 123 111 59 0.46746455712462548 4 2216 3 2609 8 2193
1060 0.48932158855279562 -3.1470021348881652 21.716062768869577 0 0 0 0.22417905830814061 2 2318 4 2464
1059 5.0197210508139003 -2.7127827083392 21.379482236045316 164 150 103 0.51947277506877187 4 2951 3 2606 8 3411
1058 5.6060677116150384 -3.2637279415953206 20.53057166391558 199 175 127 0.5119517850054468 4 2910 3 2603 8 3384
1057 5.5474783371522927 -2.7461662390003441 21.679264081871807 182 166 107 0.37558555959563583 4 3281 3 2597 8 3087
1056 3.5408004408383169 -2.7276551764845793 21.137770489857594 130 114 63 0.14846648063691281 4 1676 3 2592 8 2853
1055 -0.02186779337903804 -3.1477041223066742 21.882591333538887 174 161 119 0.60616307099192546 4 3084 3 2589
1054 5.9739962070741495 -2.5132992587874328 21.102094850669335 149 129 78 0.2017244540399506 3 2587 8 3061
1053 2.2232574129948399 -1.9435039073760718 21.72679221604238 158 139 83 0.28945416595083096 4 3762 3 2586 8 2427
1052 3.9282742300587707 -2.7362895680747465 21.012822215430159 134 122 74 0.57408692923743432 4 1656 3 2577 8 1689
1051 1.0625553958535028 -3.3480727190358373 21.676378255144929 191 178 126 1.6956600511950419 2 2613 4 3369 3 2572 8 1650
977 5.7515385022349337 -2.1044913705129007 22.112522704671225 154 141 99 1.5303928615387279 4 937 3 2107
976 3.4132754938250467 -2.1191774708150923 22.037376863566934 128 110 64 1.3030949220069015 4 3166 3 2098 8 2500
975 3.4814317221309032 -2.1254433622573781 22.066560784221576 146 134 84 0.65640966990722471 4 3156 3 2095 8 3200
974 5.6686879286710594 -1.9557980955019445 22.397837295968479 146 139 97 0.4949733858457801 4 3257 3 2090 8 3152
973 1.7030719915013812 -2.2736325891488662 21.748744541681756 172 162 113 0.46672091378777714 4 3200 3 2088
972 0.87985428259988596 -1.6078720655270218 23.709149653937178 184 173 127 0.14636903905579091 4 2343 3 2084
971 2.8603070304866041 -1.3247145875179727 23.666598693585936 128 107 62 0.59099732752476841 4 2286 3 2073 8 2682
969 3.6310565573451945 -1.2322718737959699 23.276869638423971 144 135 92 1.0023034172679604 2 2165 4 3687 3 2070 8 2717
968 1.3653091705234852 -1.5380357175767383 23.987780860582419 139 127 85 0.63817795630634444 4 2273 3 2069 8 2326
967 2.9110474367180297 -1.570902031897512 23.382597289122664 80 59 14 0.27807979051293419 4 1512 3 2068 8 2182
966 4.1605757637081693 -1.4194463372642374 23.314883681749194 164 148 85 1.2321636614707392 4 2158 3 2064 8 3761
965 3.2418001669257372 -1.4821104231368822 22.852393141719638 194 173 126 0.48424029693024911 4 2365 3 2062 8 2185
964 4.6117291702897703 -1.3898301112076894 23.569928816503182 121 118 75 0.76482015164188899 4 2351 3 2061 8 2400
963 4.0998663765657168 -1.3212341657949733 23.284738344819132 119 108 56 0.0052621527949570932 4 2182 3 2060
962 2.382323907983567 -1.5358725350172047 23.160153996460387 134 121 71 2.1933942518760126 4 3699 3 2059 8 2300
961 3.0391476171236973 -1.4717240364731574 23.034833292381247 145 129 80 1.6841292636213776 4 2180 3 2058 8 3786
960 4.1764015235767227 -1.3229304649347855 23.223986667073337 91 82 27 0.21876672394811228 4 2366 3 2052 8 3751
959 4.4950465877041035 -1.381918995423431 23.416271444664638 125 121 74 0.67231480956335155 4 2354 3 2051 8 2168
958 3.4618998969883412 -1.2426932956047967 23.889364466559488 129 121 82 0.71008736929149963 4 1534 3 2033
957 2.652361254714144 -1.2009052398022426 23.751075993587659 136 119 72 0.27024912321767641 4 1591 3 2029 8 1583
956 2.4092980708216656 -1.0343929883201937 23.909764105688975 155 151 108 0.60465632695899008 4 2314 3 2018 8 2563
955 4.6294730919699312 -1.8211095826639516 23.138136912827363 134 119 64 0.58962557659838721 4 1245 3 2012 8 2368
954 4.0266611474712386 -1.4599257951985121 23.188314455088342 153 138 86 0.27460448474801291 4 2353 3 2008 8 2166
953 3.01066923002243 -1.8263287086307216 22.430898314203798 99 84 50 0.42238784984106981 4 1543 3 2007 8 1036
952 4.7881521206714774 -1.7051262375084109 23.256555698296157 72 63 8 0.25218014801126099 2 1901 4 1252 3 2004 8 1372
951 3.9390390530805264 -1.7402995310742915 22.621149569057366 151 142 100 0.40658653061346878 4 2491 3 2003 8 1527
950 2.494348810702435 -1.7757807157979237 21.81640136396285 135 121 84 0.3204283748298285 4 1553 3 2001 8 1492
949 5.6544016743467083 -1.9052986002639714 22.439889352362265 170 173 131 0.25636510829620657 4 1274 3 1996 8 1237
948 2.0269319428341914 -2.1435473180861662 21.48731691258007 177 155 106 0.28229310553368592 4 2536 3 1992
947 3.2227727238490562 -1.9971010082540637 22.423288382208792 115 101 50 1.114886584449539 2 1964 4 1742 3 1986
946 3.6051228317060264 -1.9337562894144451 22.222524488790786 112 96 47 0.26209304073718653 4 2518 3 1985
945 2.5060011740791355 -2.0072489280264643 21.895949184870087 129 113 79 0.15386727780120646 4 2203 3 1984
944 3.5465011787147263 -1.9349017148081056 22.412801276189597 133 111 70 0.95054678692763306 4 2660 3 1982 8 3588
943 3.1777965582594576 -2.0473634154224425 22.213416995319395 121 107 58 0.4345917102246426 4 1241 3 1981 8 1746
942 2.0502184709730442 -1.7524736986909868 23.411662307064923 147 132 91 2.2952151301528949 2 2926 4 2364 3 1980
941 4.2512284788168646 -1.5339352384545686 23.057854138004945 154 130 70 0.21306916549281069 2 2180 3 1978
940 -2.6821621224693124 -2.1770970311945455 24.056721030846667 173 174 142 2.458006483898556 4 2283 3 1976
939 3.704845054601519 -1.5526069777420914 22.933489219227294 155 141 97 0.57415346023495539 4 2652 3 1975 8 1493
938 7.4991278462648294 -1.2013626917145508 23.67272372633234 144 149 116 1.0843471430290272 4 1255 3 1971 8 2364
937 4.482930641851385 -1.6646760070660058 23.235701590745506 173 159 105 1.1941289404392854 4 3572 3 1963 8 642
936 3.5094344238818045 -1.708619055549647 22.702614442412269 154 138 87 0.5262998178303393 2 1930 3 1962 8 1538
935 1.1447746536654091 -1.9694737837632657 23.780936333173525 125 112 70 0.49838434120608222 3 1960 8 2640
934 2.3949178813188055 -1.6758274743785708 21.856479506475825 119 108 63 0.76645227902164836 4 1559 3 1951
933 4.3348878089326872 -1.5738097040440511 23.144658636392798 186 172 113 0.49792254279950904 4 2222 3 1949 8 2865
932 3.7232849192712814 -1.6078612784371815 22.820774272072448 100 83 40 0.29116905290414019 2 1886 4 2217 3 1948 8 2232
931 4.2510852695596091 -1.5684199284582037 23.141183526693201 143 121 65 0.44249622157470125 4 3744 3 1947 8 2212
930 4.5358009516023285 -1.5856767515461381 23.246573013948375 127 116 62 0.45543825913121222 4 1545 3 1946 8 1531
929 0.11774348304101001 0.50466046726920621 27.485409111203481 110 114 89 0.66177955532875798 2 1675 4 2107 3 1944 8 2138
928 -0.095427501172491838 0.56477406753200154 27.423613780164509 50 53 22 1.131134273784415 2 1191 4 2134 3 1937
925 4.7755245724898883 -3.2496886519120243 20.734969414145485 137 118 60 0.61846093255897627 4 1937 3 1805 8 1934
924 5.7867532766661887 -3.1260588970514047 20.546848471281884 157 136 91 0.46474056788238066 4 1294 3 1804 8 1296
923 3.5609332579184612 -3.3434026433442425 20.701133236797403 172 162 106 0.56542988498021274 4 2843 3 1801
922 0.10054623936403249 -3.6627685587522678 20.870032598889235 112 91 45 0.31279962366897146 4 1918 3 1800 8 1699
921 4.8258765524236757 -3.2070528599725407 20.694334621999051 118 99 41 0.39759480758380317 4 1933 3 1799 8 1932
920 0.50390314526529512 -3.3682872818283287 21.28836363059154 108 83 37 0.80466276687893146 4 1708 3 1798
919 3.9866636317898667 -3.3016725602446102 20.848954534662038 213 195 131 0.70225631520975063 4 1963 3 1797 8 1259
918 3.3720987404960305 -3.3198134549248963 20.676076928966665 197 183 122 0.41213755907806204 4 3484 3 1796
917 2.2556633006955447 -3.4953346870709412 21.290453295453357 117 93 45 1.9023245917237437 4 1894 3 1794
916 4.1140492656630894 -3.2278515255003524 20.683602540510861 185 174 110 0.46194953431973207 2 1128 3 1792
915 4.0441903556270935 -3.2421938987116885 20.78839197260141 128 114 51 0.30645071531805762 4 1958 3 1791 8 1958
914 0.17175259627833364 -3.6081557330095309 20.944038960237716 181 160 113 0.56112262530886348 4 2969 3 1790 8 1322
912 4.6734459868635776 -3.3038500639879524 20.478234328324309 104 85 27 1.5666450051217153 4 1043 3 1783
911 4.2401892137029789 -3.3521989515637149 20.65067031826192 115 98 44 1.4211091453050972 2 1391 3 1782
910 4.6525664298606371 -3.2975671622514584 20.516087268613852 199 181 119 0.51180550682788672 4 1948 3 1781 8 1247
909 0.47589760788434027 -3.6727244849626159 20.800503770060164 176 154 105 0.66424693842014093 4 3272 3 1774 8 2947
908 3.8982577065547068 -3.3658133363242935 20.838051569662785 139 119 56 0.79710708849657053 4 860 3 1773 8 1968
907 3.9896420858711035 -3.2507534710358659 20.871653110645923 147 131 69 0.72133464063968022 4 3424 3 1763 8 3318
906 0.33822604421193614 -3.398403365273913 21.114903284167067 138 120 74 0.21730519106340501 4 1208 3 1760
905 2.9723507171421684 -3.0662015093725357 20.639924838088341 139 120 77 0.25157911083629686 4 1690 3 1755 8 1311
904 4.0142860587107831 -3.2326722602162401 20.75406190471659 210 192 129 0.82249522361690219 4 1957 3 1753 8 1957
903 4.6198968039243606 -3.1321244987266388 20.611710243006627 160 141 83 0.70255197439572958 4 1369 3 1751
902 5.2663151604103184 -3.1047373572291961 21.014986427227726 154 133 80 1.1409972292672619 4 2808 3 1748 8 3303
901 2.2046478329444019 -3.4201552906729358 21.213569904205862 178 153 97 0.29684320320369462 4 1388 3 1747
900 4.0627573583627727 -3.193310667395727 20.799086638803733 179 162 102 0.77962352838588211 4 1922 3 1746
899 2.5836711916195183 -3.2980965490682306 20.893944662823198 192 182 121 0.41247070680095926 4 3260 3 1742 8 3101
898 3.9386158906037561 -3.1766606171345817 20.95517389637903 94 75 6 0.13968267227021958 4 1379 3 1741 8 864
897 4.6520925065905487 -3.0675577871125106 20.699833424924964 112 90 41 0.34147480394575358 2 2303 4 1910 3 1740 8 1267
896 2.5336948618489381 -3.2807631076090766 20.909161178924457 195 180 122 0.55129312615267789 4 1391 3 1737 8 2880
895 4.250587740071464 -3.9159928589850379 20.248827100616879 149 138 89 0.92802370804299705 4 2872 3 1726 8 1875
894 0.31322679380147928 -4.2578738490955619 20.588160791248018 213 206 162 0.41534590926234055 4 1846 3 1724 8 2905
893 4.2613683494476868 -3.7589575022202584 20.32659254988166 207 192 135 0.67031286746804353 4 2920 3 1722 8 1277
892 5.3363842301105366 -3.5914626254530972 20.126066037797909 209 199 140 1.3223603576758798 4 1871 3 1721 8 3947
891 5.3317594113546765 -3.6100031935525139 20.304163362979295 142 134 73 0.77831085119462617 4 2650 3 1720 8 1873
890 3.9363408413312695 -3.409243135179965 20.746167161301756 155 136 77 1.9902248143098884 4 1941 3 1718 8 1942
889 0.86594395908910737 -2.4243057924541311 21.741239962139776 143 130 95 0.21788432969747745 4 3203 3 1709
888 0.79225167292853782 -1.9513379689359178 23.261569001333754 172 162 113 1.1950426905643634 4 2363 3 1707 8 118
887 3.6835829985248609 -1.5218792376569681 23.071594164309687 179 166 121 1.909956956164254 4 1561 3 1706 8 3766
886 5.9018348644750871 -2.2481005607823805 21.926956495829707 82 80 39 0.79662264270647953 4 1847 3 1701
885 3.9654108067616058 -3.5359578390979856 20.635636396466055 99 78 23 0.67671542123227069 4 2801 3 1698 8 1947
884 2.2005157631496535 -3.7446894435976517 20.929724458938562 211 195 135 1.0424224473039188 2 2668 4 864 3 1697
883 2.1304692552249844 -3.7318216799366466 20.894518333894524 226 206 147 0.62303568456484903 2 2334 3 1695
882 4.2642038295252691 -3.4910784899485243 20.706281696974933 132 116 64 0.72078935678456446 4 1834 3 1694
881 2.8593213801150386 -3.6106082812120741 20.682810198862526 204 180 134 0.12799279312766085 4 2816 3 1693
880 5.4238451059269623 -3.614570430738461 20.488224240553702 207 193 132 1.4584881617164183 4 1869 3 1692
879 0.51232835233077711 -3.7852133544860904 20.629650717877031 194 172 122 0.4849173382820644 4 3429 3 1691
878 4.6287640556965677 -3.4125234546331518 20.775677908238308 145 127 66 1.3256342053351202 4 1828 3 1690 8 1241
877 4.7114293279991433 -3.3906280138486218 20.772685726506065 95 75 22 0.53900281805136829 4 1292 3 1687 8 1300
875 5.0722311099088948 -3.3810238337586682 20.669270588069878 176 150 97 0.079478420988389878 4 1842 3 1683
874 3.7459539501104779 -3.7189688805900363 20.504847769667236 160 135 64 0.43599451727783123 2 1639 4 1813 3 1678
873 3.4991198473853578 -3.6773685513672105 20.556098378083519 183 171 111 2.2781580646731108 4 3480 3 1676
872 3.7528446266405795 -3.6628653251802743 20.565266269153639 105 69 0 0.58467118853711786 2 1660 4 1808 3 1675 8 1123
871 4.7853187980888832 -3.473058109354866 20.642759975036732 126 109 53 0.47548014903341268 4 1806 3 1674 8 1796
870 4.3272122340346222 -3.5436100474925238 20.506617483778989 146 126 73 0.49518213645961739 4 1867 3 1673 8 1839
869 2.7703299250886846 -3.6912417089854843 20.640963294981727 139 116 66 0.3112151086900799 4 1951 3 1669 8 2795
868 2.8063997287424285 -3.7015358404887158 20.70477393573665 200 179 126 0.80532236271730662 4 1295 3 1668 8 883
867 4.3945564324785176 -3.5107144478404195 20.494546036756475 187 171 120 0.078031497772178465 4 3064 3 1667
866 4.3082963863337351 -3.5174683619572593 20.569877441606867 139 122 68 0.89025753509190908 4 1298 3 1666
865 3.5593108578956394 -3.6361259466654574 20.527303152978028 196 180 120 0.35531771034206655 4 2911 3 1665 8 1819
864 3.3274330272894055 -2.5479002148265546 21.594061967314968 50 31 0 0.1392049167056047 4 948 8 800
863 2.4257928468303849 -2.5664361390430965 21.303503754533963 173 156 106 1.1617424524720259 4 1788 3 1662
862 6.013168521120221 -2.1813062482728118 21.043794232824961 0 0 0 0.3903042983392172 2 1984 4 3137
861 -2.9516593370495179 -3.2067591638833091 23.065391229740523 185 178 148 0.0061830057727689913 4 2522 8 3798
860 5.153748759876251 -2.3673272848884039 22.07139216197017 160 147 93 0.77229698132348412 4 2463 3 1655
859 5.4979540608216499 -2.2932455996449135 21.642296197640903 156 144 94 0.56175419112446112 4 1781 3 1654 8 1177
858 4.7397721180642067 -2.388494362630222 21.902087736568749 82 60 2 0.66448763474906325 4 1771 3 1652 8 1642
857 1.9142754775799522 -2.554045533321204 21.141294047697418 157 133 77 1.0245846918220249 4 946 3 1651
856 2.4941542696318955 -2.7217129713557249 20.99674677371457 177 160 104 0.268776062503295 4 1774 3 1644
855 2.3239171911599765 -2.7202521019271573 21.101533236942355 136 123 71 0.33983036269511774 2 1411 4 1766 3 1642 8 2439
854 5.6308560034377688 -2.4630620606329132 21.632961418716608 176 165 120 0.94812776645186247 4 3119 3 1641 8 1319
853 4.6768087338166717 -2.5304617712089708 21.786887787280378 141 130 79 0.43205852596718558 4 1665 3 1638 8 1853
